ply
format ascii 1.0
element vertex 1000
property float x
property float y
property float z
property uchar red
property uchar green
property uchar blue
end_header
332.987500 -300.781600 980.810200 255 0 0
332.987100 -300.779600 980.812300 255 2 0
332.988200 -300.771700 980.802500 255 7 0
332.987900 -300.769400 980.804300 255 9 0
332.987700 -300.766900 980.805500 255 11 0
332.987500 -300.764200 980.806600 255 12 0
332.987300 -300.761700 980.807900 255 14 0
332.987000 -300.759600 980.810100 255 16 0
332.986800 -300.757100 980.811500 255 17 0
332.986400 -300.755100 980.813800 255 19 0
332.986100 -300.752700 980.815600 255 20 0
332.987300 -300.744400 980.804800 255 26 0
332.987100 -300.741800 980.805800 255 29 0
332.986900 -300.739200 980.807100 255 30 0
332.986600 -300.736800 980.808900 255 32 0
332.986300 -300.734800 980.811300 255 33 0
332.986000 -300.732500 980.813000 255 35 0
332.985700 -300.730300 980.815100 255 37 0
332.985400 -300.728000 980.817100 255 38 0
332.985100 -300.725600 980.818800 255 40 0
332.984900 -300.723100 980.820200 255 41 0
332.984600 -300.720600 980.821800 255 43 0
332.985800 -300.712300 980.810900 255 49 0
332.985400 -300.710300 980.813400 255 51 0
332.985500 -300.706400 980.812000 255 53 0
332.985200 -300.704300 980.814400 255 55 0
332.984900 -300.702000 980.816300 255 56 0
332.984600 -300.699600 980.818100 255 58 0
332.984300 -300.697200 980.819900 255 60 0
332.984100 -300.694700 980.821400 255 61 0
332.983800 -300.692200 980.823100 255 63 0
332.985000 -300.683800 980.812000 255 69 0
332.984900 -300.680800 980.812600 255 71 0
332.984500 -300.678900 980.815400 255 72 0
332.984200 -300.676700 980.817700 255 74 0
332.983900 -300.674200 980.819200 255 75 0
332.983700 -300.671300 980.820100 255 78 0
332.983600 -300.668500 980.821100 255 79 0
332.983300 -300.665900 980.822500 255 81 0
332.982900 -300.663700 980.824800 255 82 0
332.982600 -300.661500 980.827200 255 84 0
332.984000 -300.652300 980.814200 255 91 0
332.983900 -300.649100 980.814500 255 92 0
332.983600 -300.647100 980.817200 255 94 0
332.983100 -300.645300 980.820400 255 95 0
332.982900 -300.642600 980.821800 255 96 0
332.982700 -300.639800 980.822700 255 99 0
332.982400 -300.637300 980.824500 255 100 0
332.982100 -300.635000 980.826700 255 102 0
332.981800 -300.632500 980.828500 255 103 0
332.981500 -300.630000 980.830100 255 106 0
332.982800 -300.621500 980.818800 255 111 0
332.982500 -300.619000 980.820600 255 113 0
332.982300 -300.616200 980.821800 255 114 0
332.982100 -300.613400 980.822800 255 117 0
332.981800 -300.610700 980.824200 255 118 0
332.981700 -300.607700 980.825000 255 121 0
332.981400 -300.605200 980.826800 255 122 0
332.981200 -300.602400 980.827900 255 124 0
332.980900 -300.599900 980.829800 255 126 0
332.980600 -300.597400 980.831600 255 127 0
332.982000 -300.588500 980.819500 255 133 0
332.981800 -300.585600 980.820400 255 135 0
332.981500 -300.583000 980.822000 255 137 0
332.981200 -300.580700 980.824300 255 138 0
332.980800 -300.578400 980.826700 255 139 0
332.980500 -300.575800 980.828600 255 141 0
332.980200 -300.573400 980.830600 255 143 0
332.979800 -300.571200 980.833100 255 145 0
332.979600 -300.568600 980.834800 255 146 0
332.979300 -300.565700 980.836100 255 148 0
332.979000 -300.563100 980.837800 255 149 0
332.980500 -300.553900 980.824700 255 156 0
332.980200 -300.551500 980.826900 255 157 0
332.979900 -300.549100 980.829000 255 159 0
332.979600 -300.546500 980.830900 255 161 0
332.979200 -300.544000 980.833000 255 162 0
332.978900 -300.541600 980.835100 255 164 0
332.978600 -300.539100 980.837100 255 166 0
332.978300 -300.536600 980.839300 255 167 0
332.978300 -300.533000 980.838700 255 169 0
332.977900 -300.530600 980.841200 255 171 0
332.979300 -300.521700 980.828600 255 177 0
332.979100 -300.518900 980.830000 255 178 0
332.978800 -300.516000 980.831300 255 180 0
332.978600 -300.513200 980.832700 255 182 0
332.978200 -300.510900 980.835200 255 184 0
332.977900 -300.508400 980.837500 255 185 0
332.977500 -300.506200 980.840200 255 187 0
332.977400 -300.502900 980.840600 255 189 0
332.977300 -300.499400 980.840500 255 191 0
332.977100 -300.496500 980.841800 255 193 0
332.976600 -300.494400 980.844800 255 194 0
332.976200 -300.492100 980.847500 255 196 0
332.977600 -300.483400 980.835300 255 201 0
332.977400 -300.480500 980.836700 255 203 0
332.977100 -300.477700 980.838300 255 205 0
332.976900 -300.474800 980.839500 255 207 0
332.976700 -300.471800 980.840700 255 208 0
332.976300 -300.469100 980.842600 255 210 0
332.976000 -300.466800 980.845200 255 212 0
332.975600 -300.464300 980.847400 255 213 0
332.975400 -300.461300 980.848800 255 215 0
332.975200 -300.458300 980.849800 255 217 0
332.976700 -300.449200 980.836800 255 223 0
332.976500 -300.446000 980.837400 255 225 0
332.976300 -300.443000 980.838600 255 227 0
332.975900 -300.440700 980.841200 255 228 0
332.975600 -300.438100 980.843400 255 230 0
332.975400 -300.434800 980.844100 255 232 0
332.975100 -300.432000 980.845700 255 234 0
332.974800 -300.429400 980.847800 255 235 0
332.974500 -300.426500 980.849300 255 237 0
332.974300 -300.423700 980.851000 255 239 0
332.973900 -300.421100 980.853200 255 240 0
332.975300 -300.412600 980.841300 255 246 0
332.975000 -300.409600 980.842800 255 247 0
332.974900 -300.406200 980.843100 255 250 0
332.974600 -300.403300 980.844600 255 251 0
332.974200 -300.401000 980.847400 255 253 0
332.974000 -300.397900 980.848600 254 255 0
332.973700 -300.395100 980.850300 252 255 0
332.973400 -300.392100 980.851700 251 255 0
332.973200 -300.389100 980.853000 249 255 0
332.974700 -300.380000 980.839700 243 255 0
332.974400 -300.377300 980.841700 242 255 0
332.974100 -300.374600 980.843800 240 255 0
332.973700 -300.372100 980.846400 238 255 0
332.973400 -300.369100 980.847800 237 255 0
332.973200 -300.366100 980.849400 235 255 0
332.973000 -300.362900 980.850300 234 255 0
332.972800 -300.359700 980.851300 231 255 0
332.972700 -300.356400 980.851900 230 255 0
332.972500 -300.353200 980.852800 227 255 0
332.973900 -300.344400 980.840000 222 255 0
332.973600 -300.341500 980.841700 220 255 0
332.973400 -300.338200 980.842700 219 255 0
332.973100 -300.335500 980.844800 217 255 0
332.972700 -300.332900 980.847200 215 255 0
332.972500 -300.329700 980.848300 213 255 0
332.972300 -300.326800 980.849900 211 255 0
332.972000 -300.323700 980.851200 209 255 0
332.971800 -300.320600 980.852500 208 255 0
332.971500 -300.317500 980.853900 206 255 0
332.971200 -300.314900 980.856400 204 255 0
332.972500 -300.306200 980.843900 200 255 0
332.972300 -300.303200 980.845400 197 255 0
332.972000 -300.300100 980.846700 196 255 0
332.971800 -300.297000 980.848100 194 255 0
332.971500 -300.294200 980.850000 192 255 0
332.971100 -300.291400 980.852400 191 255 0
332.970800 -300.288700 980.854700 189 255 0
332.970700 -300.285000 980.854600 187 255 0
332.970500 -300.281900 980.856000 185 255 0
332.970300 -300.278400 980.856400 183 255 0
332.971900 -300.269400 980.843000 178 255 0
332.971500 -300.266600 980.845000 176 255 0
332.971200 -300.263600 980.846900 174 255 0
332.970900 -300.260800 980.849000 173 255 0
332.970600 -300.257800 980.850800 172 255 0
332.970400 -300.254600 980.852000 169 255 0
332.970000 -300.251900 980.854300 167 255 0
332.969600 -300.249100 980.856600 166 255 0
332.969400 -300.246000 980.858300 164 255 0
332.969200 -300.242700 980.859300 162 255 0
332.969000 -300.239400 980.860300 161 255 0
332.968800 -300.236100 980.861300 159 255 0
332.970300 -300.227000 980.847500 153 255 0
332.970000 -300.224100 980.849400 152 255 0
332.969600 -300.221400 980.852100 150 255 0
332.969300 -300.218500 980.854300 149 255 0
332.969000 -300.215300 980.855700 147 255 0
332.968800 -300.212000 980.856600 145 255 0
332.968500 -300.209000 980.858400 143 255 0
332.968400 -300.205500 980.859300 141 255 0
332.968200 -300.202000 980.859700 139 255 0
332.967800 -300.199300 980.862500 138 255 0
332.967500 -300.196400 980.864500 136 255 0
332.967000 -300.193700 980.867300 134 255 0
332.966600 -300.191000 980.870100 133 255 0
332.966400 -300.187600 980.871100 131 255 0
332.968100 -300.178200 980.856300 126 255 0
332.967800 -300.175100 980.858000 124 255 0
332.967400 -300.172500 980.861100 123 255 0
332.967000 -300.169500 980.863100 121 255 0
332.966800 -300.166200 980.864300 119 255 0
332.966600 -300.162900 980.865500 117 255 0
332.966500 -300.159300 980.866000 115 255 0
332.966200 -300.156100 980.867400 113 255 0
332.965900 -300.152900 980.869100 112 255 0
332.965500 -300.150000 980.871300 110 255 0
332.965100 -300.147200 980.874000 108 255 0
332.967100 -300.136900 980.856800 103 255 0
332.966700 -300.134200 980.859600 102 255 0
332.966300 -300.131300 980.862200 100 255 0
332.966000 -300.128200 980.864000 98 255 0
332.965900 -300.124700 980.864600 96 255 0
332.965700 -300.121200 980.865600 95 255 0
332.965400 -300.118100 980.867400 92 255 0
332.965000 -300.115100 980.869800 91 255 0
332.964800 -300.111500 980.870400 90 255 0
332.964500 -300.108600 980.872700 87 255 0
332.964300 -300.105000 980.873500 86 255 0
332.965900 -300.096100 980.859600 81 255 0
332.965600 -300.092900 980.861300 79 255 0
332.965100 -300.090100 980.864200 78 255 0
332.964800 -300.087000 980.866100 76 255 0
332.964600 -300.083600 980.867300 74 255 0
332.964600 -300.079500 980.866700 72 255 0
332.964300 -300.076300 980.868500 71 255 0
332.964000 -300.073100 980.870200 68 255 0
332.963700 -300.069800 980.871800 67 255 0
332.963500 -300.066400 980.873200 65 255 0
332.963200 -300.063200 980.874800 63 255 0
332.962900 -300.059800 980.876200 62 255 0
332.962600 -300.056600 980.878300 60 255 0
332.964100 -300.048000 980.864900 55 255 0
332.963800 -300.044900 980.867100 54 255 0
332.963400 -300.041700 980.869100 52 255 0
332.963200 -300.038400 980.870700 51 255 0
332.962900 -300.035100 980.872400 49 255 0
332.962600 -300.031700 980.873800 47 255 0
332.962300 -300.028400 980.875200 45 255 0
332.962100 -300.025100 980.877000 44 255 0
332.961800 -300.021600 980.878300 42 255 0
332.961500 -300.018300 980.879900 40 255 0
332.961300 -300.014900 980.881300 38 255 0
332.961100 -300.011300 980.882400 37 255 0
332.960800 -300.007900 980.883700 34 255 0
332.962400 -299.999100 980.869800 30 255 0
332.962200 -299.995600 980.871000 28 255 0
332.961900 -299.992300 980.872900 26 255 0
332.961800 -299.988400 980.872900 25 255 0
332.961400 -299.985200 980.875000 23 255 0
332.961100 -299.981900 980.876900 22 255 0
332.960800 -299.978500 980.878200 20 255 0
332.960600 -299.975000 980.879700 18 255 0
332.960400 -299.971500 980.880900 16 255 0
332.960100 -299.968000 980.882300 14 255 0
332.959800 -299.964700 980.884200 13 255 0
332.961400 -299.955800 980.869800 8 255 0
332.961100 -299.952500 980.871700 6 255 0
332.960800 -299.949200 980.873500 5 255 0
332.960500 -299.945800 980.875400 4 255 0
332.960200 -299.942400 980.876800 1 255 0
332.960000 -299.938900 980.878400 0 255 0
332.959700 -299.935500 980.879900 0 255 1
332.959400 -299.932000 980.881500 0 255 2
332.958900 -299.929200 980.885000 0 255 4
332.958700 -299.925500 980.885900 0 255 6
332.958600 -299.921500 980.885800 0 255 8
332.958500 -299.917700 980.886400 0 255 10
332.958200 -299.914100 980.887500 0 255 12
332.957900 -299.910600 980.889200 0 255 13
332.959400 -299.902400 980.876500 0 255 17
332.959100 -299.898900 980.878100 0 255 18
332.959000 -299.895000 980.878400 0 255 21
332.958700 -299.891500 980.879800 0 255 22
332.958500 -299.887800 980.880800 0 255 24
332.958300 -299.884200 980.882200 0 255 26
332.958000 -299.880700 980.883800 0 255 27
332.957700 -299.877300 980.885400 0 255 30
332.957500 -299.873500 980.886300 0 255 31
332.957300 -299.869800 980.887200 0 255 33
332.957000 -299.866400 980.889200 0 255 34
332.956600 -299.862900 980.891100 0 255 36
332.956300 -299.859500 980.892900 0 255 38
332.956100 -299.856000 980.894500 0 255 40
332.957700 -299.847200 980.879900 0 255 44
332.957500 -299.843500 980.881200 0 255 45
332.957200 -299.840100 980.883100 0 255 47
332.956800 -299.836600 980.884900 0 255 48
332.956300 -299.833800 980.888700 0 255 50
332.956000 -299.830300 980.890400 0 255 52
332.955700 -299.826600 980.891800 0 255 53
332.955600 -299.822800 980.892500 0 255 55
332.955400 -299.818800 980.892700 0 255 57
332.955200 -299.815100 980.894000 0 255 59
332.954900 -299.811600 980.896000 0 255 60
332.954500 -299.808300 980.898500 0 255 61
332.954200 -299.804700 980.900000 0 255 63
332.953800 -299.801400 980.902300 0 255 65
332.953600 -299.797600 980.903400 0 255 67
332.955400 -299.788700 980.888200 0 255 71
332.955100 -299.784900 980.889200 0 255 72
332.954800 -299.781400 980.891100 0 255 74
332.954600 -299.777600 980.892200 0 255 76
332.954400 -299.773700 980.892900 0 255 78
332.953800 -299.770900 980.897000 0 255 79
332.953800 -299.766600 980.896500 0 255 81
332.953700 -299.762400 980.896400 0 255 83
332.953500 -299.758800 980.897800 0 255 85
332.953100 -299.755400 980.900400 0 255 86
332.952800 -299.751800 980.902200 0 255 87
332.952600 -299.747900 980.903000 0 255 90
332.952400 -299.744000 980.903700 0 255 91
332.952200 -299.740000 980.904200 0 255 93
332.953600 -299.732100 980.892000 0 255 96
332.953300 -299.728400 980.893400 0 255 98
332.953100 -299.724600 980.894700 0 255 99
332.952900 -299.720900 980.895900 0 255 102
332.952600 -299.717100 980.897300 0 255 103
332.952300 -299.713400 980.898700 0 255 105
332.952000 -299.709800 980.900800 0 255 106
332.951900 -299.705600 980.900700 0 255 108
332.951700 -299.701800 980.901700 0 255 110
332.951500 -299.697800 980.902600 0 255 111
332.951300 -299.693800 980.903100 0 255 113
332.951100 -299.690000 980.904400 0 255 115
332.950800 -299.686200 980.905700 0 255 117
332.952400 -299.678000 980.892300 0 255 120
332.952100 -299.674300 980.893700 0 255 122
332.951800 -299.670600 980.895600 0 255 123
332.951700 -299.666500 980.895900 0 255 125
332.951500 -299.662400 980.896100 0 255 127
332.951200 -299.658800 980.898400 0 255 128
332.950600 -299.655700 980.902300 0 255 129
332.950100 -299.652400 980.905200 0 255 131
332.949900 -299.648600 980.906700 0 255 133
332.949700 -299.644500 980.907200 0 255 134
332.949700 -299.640100 980.906700 0 255 136
332.949200 -299.636700 980.909400 0 255 138
332.948900 -299.633100 980.911800 0 255 139
332.948500 -299.629400 980.913600 0 255 141
332.948400 -299.625400 980.914300 0 255 143
332.948200 -299.621200 980.914700 0 255 144
332.948000 -299.617400 980.916100 0 255 146
332.947600 -299.613700 980.918200 0 255 147
332.947400 -299.609700 980.919300 0 255 149
332.947300 -299.605600 980.919700 0 255 150
332.948900 -299.597200 980.905100 0 255 154
332.948500 -299.593800 980.908000 0 255 156
332.948200 -299.589900 980.909500 0 255 157
332.948100 -299.585700 980.909600 0 255 159
332.947800 -299.581900 980.911400 0 255 160
332.947300 -299.578600 980.914700 0 255 162
332.947500 -299.573600 980.912400 0 255 164
332.947200 -299.569800 980.913900 0 255 165
332.946900 -299.565900 980.915500 0 255 167
332.946700 -299.561900 980.916600 0 255 168
332.946400 -299.558000 980.917800 0 255 170
332.946200 -299.554000 980.919000 0 255 172
332.945900 -299.550000 980.920300 0 255 173
332.945600 -299.546200 980.922000 0 255 174
332.947200 -299.538200 980.908500 0 255 178
332.947000 -299.534100 980.909200 0 255 180
332.946700 -299.530100 980.910500 0 255 181
332.946500 -299.526200 980.911800 0 255 183
332.946300 -299.522000 980.912400 0 255 184
332.946200 -299.517700 980.912300 0 255 187
332.946000 -299.513600 980.913100 0 255 188
332.945700 -299.509700 980.914900 0 255 189
332.945400 -299.506000 980.917100 0 255 191
332.945200 -299.501900 980.918000 0 255 192
332.944900 -299.497800 980.919000 0 255 194
332.944600 -299.493900 980.920800 0 255 195
332.944300 -299.490100 980.922700 0 255 197
332.944000 -299.486200 980.924700 0 255 198
332.943700 -299.482200 980.925800 0 255 200
332.943500 -299.478100 980.927000 0 255 201
332.943300 -299.474000 980.927900 0 255 203
332.945000 -299.465800 980.913100 0 255 206
332.944800 -299.461700 980.914200 0 255 208
332.944400 -299.457800 980.916100 0 255 209
332.944100 -299.454000 980.918300 0 255 210
332.943700 -299.450100 980.920100 0 255 212
332.943500 -299.446000 980.921300 0 255 213
332.943300 -299.442000 980.922400 0 255 215
332.943300 -299.437300 980.921300 0 255 217
332.943000 -299.433300 980.923000 0 255 218
332.942700 -299.429400 980.924600 0 255 220
332.942400 -299.425400 980.926500 0 255 221
332.942200 -299.421300 980.927400 0 255 223
332.941900 -299.417200 980.928700 0 255 224
332.941600 -299.413100 980.930200 0 255 225
332.941400 -299.409100 980.931500 0 255 227
332.941300 -299.404700 980.931700 0 255 228
332.940900 -299.400800 980.933700 0 255 230
332.940700 -299.396600 980.934800 0 255 231
332.940400 -299.392500 980.936200 0 255 233
332.940200 -299.388400 980.937300 0 255 235
332.941700 -299.380600 980.923500 0 255 238
332.941500 -299.376400 980.924800 0 255 239
332.941200 -299.372300 980.926100 0 255 240
332.941000 -299.368200 980.927200 0 255 242
332.940800 -299.363900 980.927900 0 255 243
332.940700 -299.359600 980.928300 0 255 245
332.940500 -299.355300 980.929300 0 255 246
332.940200 -299.351200 980.930500 0 255 248
332.940000 -299.347000 980.931700 0 255 249
332.939800 -299.342800 980.932500 0 255 251
332.939500 -299.338600 980.933700 0 255 252
332.939300 -299.334300 980.934300 0 255 254
332.939000 -299.330200 980.936100 0 254 255
332.938800 -299.326000 980.937300 0 252 255
332.938500 -299.322000 980.939000 0 251 255
332.938200 -299.317800 980.940100 0 250 255
332.937900 -299.313700 980.941700 0 248 255
332.937700 -299.309500 980.943200 0 247 255
332.937300 -299.305400 980.944900 0 246 255
332.937200 -299.301000 980.945100 0 244 255
332.938900 -299.293100 980.930400 0 241 255
332.938700 -299.288900 980.931800 0 240 255
332.938400 -299.284600 980.932800 0 239 255
332.938200 -299.280400 980.934000 0 237 255
332.937900 -299.276200 980.935200 0 235 255
332.937700 -299.272000 980.936500 0 234 255
332.937400 -299.267800 980.938000 0 233 255
332.937100 -299.263600 980.939400 0 232 255
332.937000 -299.259200 980.939700 0 230 255
332.936900 -299.254700 980.939900 0 228 255
332.936600 -299.250400 980.940900 0 227 255
332.936300 -299.246300 980.942600 0 226 255
332.936000 -299.242200 980.944600 0 224 255
332.935700 -299.238000 980.946100 0 223 255
332.935400 -299.233800 980.947700 0 222 255
332.935300 -299.229300 980.947800 0 220 255
332.935000 -299.225100 980.949400 0 219 255
332.934700 -299.220800 980.950700 0 217 255
332.934500 -299.216500 980.951600 0 216 255
332.934300 -299.212100 980.952500 0 215 255
332.934100 -299.207700 980.953300 0 213 255
332.935800 -299.200000 980.938900 0 211 255
332.935500 -299.195900 980.940700 0 209 255
332.935500 -299.191100 980.939700 0 208 255
332.935100 -299.187000 980.942000 0 207 255
332.934700 -299.183000 980.944400 0 205 255
332.934300 -299.178900 980.946500 0 204 255
332.934000 -299.174700 980.948400 0 203 255
332.933800 -299.170300 980.949400 0 202 255
332.933500 -299.166000 980.950500 0 200 255
332.933300 -299.161600 980.951300 0 199 255
332.933500 -299.156500 980.949100 0 197 255
332.933100 -299.152500 980.951700 0 196 255
332.932600 -299.148500 980.954600 0 195 255
332.932500 -299.144000 980.955000 0 193 255
332.932400 -299.139300 980.954500 0 192 255
332.932300 -299.134800 980.955000 0 191 255
332.931900 -299.130600 980.957300 0 190 255
332.931400 -299.126700 980.960600 0 188 255
332.931200 -299.122300 980.961500 0 187 255
332.930900 -299.117800 980.962300 0 186 255
332.930800 -299.113300 980.963000 0 185 255
332.930600 -299.108800 980.963400 0 183 255
332.930300 -299.104400 980.964700 0 182 255
332.930100 -299.100000 980.965800 0 181 255
332.929700 -299.095700 980.967800 0 180 255
332.929400 -299.091500 980.969700 0 178 255
332.929300 -299.086900 980.969700 0 177 255
332.929100 -299.082300 980.970300 0 176 255
332.931000 -299.074500 980.954000 0 173 255
332.930800 -299.070100 980.955400 0 172 255
332.930400 -299.065900 980.957700 0 171 255
332.930000 -299.061700 980.959700 0 169 255
332.929700 -299.057300 980.961000 0 168 255
332.929500 -299.052900 980.962300 0 167 255
332.929100 -299.048700 980.964700 0 166 255
332.929000 -299.044000 980.964700 0 165 255
332.928900 -299.039400 980.964800 0 163 255
332.928700 -299.034800 980.965300 0 162 255
332.928400 -299.030400 980.966700 0 161 255
332.928100 -299.026000 980.968300 0 160 255
332.927900 -299.021500 980.969100 0 158 255
332.927700 -299.016900 980.969900 0 157 255
332.927600 -299.012200 980.969600 0 156 255
332.927300 -299.007900 980.971900 0 155 255
332.926800 -299.003800 980.974600 0 153 255
332.926600 -298.999300 980.975800 0 153 255
332.926400 -298.994600 980.976100 0 152 255
332.926300 -298.989900 980.976100 0 150 255
332.926100 -298.985300 980.976600 0 149 255
332.925900 -298.980900 980.977900 0 148 255
332.925400 -298.976700 980.980900 0 146 255
332.925400 -298.971800 980.980000 0 145 255
332.925200 -298.967300 980.981000 0 144 255
332.924700 -298.963000 980.983800 0 143 255
332.924600 -298.958400 980.984400 0 142 255
332.924600 -298.953500 980.983000 0 141 255
332.924400 -298.948900 980.983900 0 139 255
332.924000 -298.944700 980.986900 0 138 255
332.925900 -298.937100 980.970300 0 136 255
332.925700 -298.932500 980.971400 0 135 255
332.925400 -298.928000 980.972700 0 134 255
332.925200 -298.923500 980.973600 0 133 255
332.924900 -298.918900 980.974800 0 132 255
332.924700 -298.914300 980.975800 0 131 255
332.924500 -298.909700 980.976500 0 130 255
332.924200 -298.905200 980.977900 0 129 255
332.923900 -298.900800 980.979600 0 127 255
332.923800 -298.896000 980.979600 0 126 255
332.923700 -298.891300 980.979700 0 125 255
332.923400 -298.886700 980.980800 0 124 255
332.923100 -298.882200 980.982300 0 123 255
332.923000 -298.877500 980.982800 0 122 255
332.922900 -298.872800 980.983000 0 121 255
332.922800 -298.868000 980.982900 0 119 255
332.922000 -298.864100 980.988400 0 119 255
332.921800 -298.859400 980.988800 0 118 255
332.921700 -298.854600 980.989100 0 117 255
332.921400 -298.850100 980.990200 0 115 255
332.921100 -298.845500 980.991600 0 114 255
332.920900 -298.840900 980.992900 0 114 255
332.920700 -298.836200 980.993300 0 112 255
332.920600 -298.831400 980.993200 0 111 255
332.920100 -298.827100 980.996800 0 110 255
332.920000 -298.822300 980.996800 0 109 255
332.919800 -298.817600 980.997100 0 108 255
332.919600 -298.812900 980.997900 0 107 255
332.919300 -298.808300 980.999500 0 106 255
332.919000 -298.803700 981.000600 0 105 255
332.918900 -298.798900 981.000700 0 104 255
332.918800 -298.794100 981.000800 0 103 255
332.918400 -298.789700 981.003600 0 102 255
332.918400 -298.784700 981.002300 0 100 255
332.918200 -298.779900 981.002900 0 100 255
332.917700 -298.775600 981.006100 0 99 255
332.917400 -298.771000 981.008000 0 98 255
332.919500 -298.763700 980.990400 0 96 255
332.919500 -298.758700 980.989400 0 95 255
332.919300 -298.753900 980.989800 0 95 255
332.918900 -298.749500 980.992400 0 93 255
332.918900 -298.744500 980.991700 0 92 255
332.918700 -298.739700 980.991900 0 92 255
332.918300 -298.735300 980.994800 0 91 255
332.917900 -298.730700 980.996600 0 90 255
332.917900 -298.725800 980.996000 0 88 255
332.917900 -298.720900 980.995300 0 87 255
332.917700 -298.716100 980.995800 0 87 255
332.917800 -298.711100 980.994700 0 86 255
332.917200 -298.706700 980.997900 0 84 255
332.916800 -298.702200 981.000700 0 84 255
332.916500 -298.697500 981.001600 0 83 255
332.916600 -298.692500 981.000600 0 82 255
332.916500 -298.687600 981.000500 0 81 255
332.916100 -298.683000 981.002500 0 80 255
332.915800 -298.678400 981.004500 0 79 255
332.915600 -298.673600 981.005100 0 78 255
332.915400 -298.668800 981.005700 0 78 255
332.915100 -298.664100 981.006800 0 76 255
332.915000 -298.659200 981.007200 0 76 255
332.914800 -298.654400 981.007900 0 75 255
332.914600 -298.649700 981.009000 0 74 255
332.914300 -298.644900 981.009700 0 73 255
332.914100 -298.640200 981.010800 0 72 255
332.913900 -298.635400 981.011600 0 71 255
332.913700 -298.630600 981.012600 0 71 255
332.913400 -298.625800 981.013500 0 69 255
332.913200 -298.621100 981.014600 0 68 255
332.913000 -298.616300 981.015600 0 68 255
332.912800 -298.611500 981.016500 0 67 255
332.912500 -298.606700 981.017500 0 66 255
332.912300 -298.601900 981.018400 0 65 255
332.912200 -298.597000 981.018000 0 64 255
332.911900 -298.592200 981.019600 0 64 255
332.911700 -298.587400 981.020200 0 63 255
332.911600 -298.582500 981.020400 0 62 255
332.911400 -298.577600 981.021000 0 61 255
332.911200 -298.572800 981.022000 0 60 255
332.910800 -298.568100 981.024000 0 60 255
332.910500 -298.563400 981.025700 0 59 255
332.910300 -298.558500 981.025900 0 58 255
332.910100 -298.553700 981.027000 0 57 255
332.909900 -298.548800 981.027600 0 57 255
332.909800 -298.543900 981.027800 0 56 255
332.909700 -298.538900 981.027700 0 55 255
332.909500 -298.534100 981.028400 0 54 255
332.909100 -298.529400 981.030400 0 53 255
332.908800 -298.524600 981.032500 0 53 255
332.908800 -298.519600 981.031300 0 52 255
332.908400 -298.514800 981.033600 0 51 255
332.908000 -298.510100 981.036000 0 51 255
332.907700 -298.505300 981.037400 0 50 255
332.907600 -298.500400 981.037200 0 49 255
332.907600 -298.495300 981.036300 0 48 255
332.907500 -298.490300 981.036200 0 48 255
332.907300 -298.485400 981.036800 0 47 255
332.907100 -298.480500 981.037500 0 47 255
332.907000 -298.475600 981.037600 0 45 255
332.906900 -298.470600 981.037800 0 45 255
332.906600 -298.465800 981.039200 0 44 255
332.906300 -298.461000 981.041100 0 43 255
332.906000 -298.456100 981.042000 0 43 255
332.905900 -298.451100 981.041800 0 42 255
332.905900 -298.446100 981.041500 0 41 255
332.908000 -298.439500 981.023900 0 40 255
332.907700 -298.434700 981.025400 0 40 255
332.907500 -298.429700 981.025800 0 39 255
332.907400 -298.424700 981.025400 0 39 255
332.907300 -298.419800 981.025600 0 37 255
332.907000 -298.414900 981.026900 0 37 255
332.906700 -298.410100 981.028400 0 36 255
332.906500 -298.405200 981.029100 0 36 255
332.906300 -298.400300 981.030500 0 35 255
332.906200 -298.395300 981.030000 0 34 255
332.906200 -298.390200 981.029300 0 34 255
332.906000 -298.385300 981.029500 0 33 255
332.905800 -298.380300 981.030500 0 33 255
332.905600 -298.375400 981.031100 0 32 255
332.905500 -298.370400 981.031300 0 32 255
332.905400 -298.365400 981.031100 0 31 255
332.905100 -298.360500 981.032200 0 30 255
332.904900 -298.355600 981.033000 0 29 255
332.904700 -298.350600 981.033600 0 29 255
332.904600 -298.345600 981.033800 0 29 255
332.904400 -298.340700 981.034400 0 28 255
332.904100 -298.335800 981.036100 0 28 255
332.903600 -298.331000 981.039100 0 27 255
332.903200 -298.326200 981.041300 0 26 255
332.903300 -298.321000 981.039600 0 26 255
332.903000 -298.316100 981.040900 0 25 255
332.902700 -298.311200 981.042600 0 25 255
332.902400 -298.306300 981.044100 0 24 255
332.902200 -298.301400 981.045200 0 24 255
332.902000 -298.296300 981.045200 0 24 255
332.901900 -298.291300 981.045000 0 23 255
332.901800 -298.286300 981.045200 0 22 255
332.901500 -298.281400 981.046800 0 22 255
332.901300 -298.276400 981.047700 0 21 255
332.901100 -298.271400 981.048400 0 21 255
332.900900 -298.266400 981.048800 0 20 255
332.900800 -298.261400 981.048600 0 20 255
332.900700 -298.256400 981.049100 0 19 255
332.900500 -298.251400 981.049700 0 18 255
332.900200 -298.246400 981.050600 0 18 255
332.900300 -298.241300 981.049300 0 18 255
332.900100 -298.236300 981.050200 0 17 255
332.899800 -298.231300 981.051300 0 17 255
332.899500 -298.226400 981.053000 0 16 255
332.897100 -298.222400 981.071000 0 16 255
332.896900 -298.217300 981.071700 0 16 255
332.896700 -298.212300 981.072300 0 16 255
332.896500 -298.207200 981.072700 0 16 255
332.898600 -298.201300 981.055700 0 14 255
332.898400 -298.196200 981.055800 0 14 255
332.898400 -298.191200 981.055500 0 13 255
332.898300 -298.186100 981.055700 0 13 255
332.898100 -298.181100 981.056000 0 13 255
332.897900 -298.176000 981.056600 0 13 255
332.897700 -298.171000 981.057600 0 13 255
332.897500 -298.166000 981.058300 0 12 255
332.897200 -298.161000 981.059400 0 12 255
332.897200 -298.155900 981.059100 0 11 255
332.897000 -298.150800 981.059100 0 11 255
332.896800 -298.145800 981.060100 0 10 255
332.896700 -298.140800 981.060200 0 10 255
332.896600 -298.135700 981.059400 0 10 255
332.896500 -298.130600 981.059800 0 9 255
332.896300 -298.125600 981.060600 0 9 255
332.895800 -298.120600 981.063000 0 9 255
332.895800 -298.115500 981.063000 0 9 255
332.895600 -298.110500 981.063000 0 8 255
332.893300 -298.106000 981.080100 0 8 255
332.893200 -298.101000 981.080400 0 8 255
332.893000 -298.095900 981.081200 0 8 255
332.892800 -298.090900 981.081800 0 6 255
332.892500 -298.085800 981.082700 0 6 255
332.892400 -298.080700 981.083400 0 6 255
332.892200 -298.075700 981.084100 0 6 255
332.892000 -298.070600 981.084300 0 6 255
332.892000 -298.065400 981.083900 0 6 255
332.891900 -298.060300 981.083700 0 5 255
332.891600 -298.055300 981.084800 0 5 255
332.891200 -298.050300 981.087400 0 5 255
332.890800 -298.045200 981.089400 0 5 255
332.890600 -298.040100 981.090000 0 5 255
332.890600 -298.035000 981.089100 0 4 255
332.890500 -298.029900 981.088700 0 4 255
332.890500 -298.024700 981.088300 0 4 255
332.890300 -298.019700 981.088700 0 4 255
332.890200 -298.014600 981.089100 0 3 255
332.890100 -298.009400 981.088300 0 4 255
332.890100 -298.004300 981.087900 0 3 255
332.889800 -297.999200 981.089500 0 3 255
332.889800 -297.994100 981.088200 0 2 255
332.889800 -297.989000 981.087500 0 2 255
332.889500 -297.983900 981.088700 0 2 255
332.889200 -297.978800 981.090800 0 2 255
332.888900 -297.973700 981.092000 0 2 255
332.888900 -297.968600 981.090900 0 2 255
332.888900 -297.963500 981.090000 0 1 255
332.888500 -297.958400 981.092500 0 1 255
332.888500 -297.953200 981.091400 0 2 255
332.888400 -297.948200 981.091600 0 1 255
332.888100 -297.943000 981.092900 0 1 255
332.887800 -297.937900 981.093900 0 1 255
332.887800 -297.932800 981.093300 0 1 255
332.887700 -297.927700 981.093000 0 1 255
332.887500 -297.922600 981.093800 0 1 255
332.887300 -297.917400 981.094500 0 1 255
332.886800 -297.912400 981.097500 0 0 255
332.886400 -297.907300 981.099600 0 0 255
332.886500 -297.902100 981.098100 0 1 255
332.886600 -297.897000 981.096700 0 0 255
332.886400 -297.891800 981.096800 0 1 255
332.886300 -297.886700 981.097300 0 0 255
332.886200 -297.881600 981.097200 0 0 255
332.886100 -297.876500 981.096700 0 0 255
332.885900 -297.871300 981.097500 0 0 255
332.885700 -297.866200 981.098200 0 0 255
332.885600 -297.861100 981.098300 0 0 255
332.885600 -297.856000 981.097300 0 0 255
332.885500 -297.850800 981.096700 0 0 255
332.885400 -297.845700 981.097100 0 0 255
332.885300 -297.840600 981.097200 0 0 255
332.884700 -297.835400 981.100300 0 0 255
332.884500 -297.830300 981.101300 0 0 255
332.884300 -297.825200 981.101700 0 0 255
332.884200 -297.820000 981.102000 0 0 255
332.884100 -297.814900 981.101400 0 0 255
332.884200 -297.809800 981.100200 0 0 255
332.884200 -297.804700 981.098800 0 0 255
332.884200 -297.799500 981.098100 0 0 255
332.884000 -297.794400 981.099100 0 0 255
332.881200 -297.789000 981.119900 0 0 255
332.880900 -297.783800 981.121200 0 1 255
332.881000 -297.778700 981.119300 0 1 255
332.881100 -297.773600 981.118200 0 1 255
332.880700 -297.768400 981.120100 0 1 255
332.880500 -297.763200 981.121000 0 1 255
332.880600 -297.758100 981.119400 0 1 255
332.880700 -297.753000 981.117400 0 1 255
332.880300 -297.747800 981.119900 0 1 255
332.880000 -297.742600 981.121200 0 1 255
332.880000 -297.737500 981.120200 0 1 255
332.879800 -297.732400 981.120800 0 1 255
332.879500 -297.727200 981.122700 0 1 255
332.879300 -297.722000 981.122900 0 2 255
332.879400 -297.716900 981.121600 0 2 255
332.879600 -297.711800 981.118900 0 2 255
332.879300 -297.706600 981.120200 0 2 255
332.879200 -297.701400 981.120700 0 2 255
332.879200 -297.696400 981.119100 0 2 255
332.879500 -297.691300 981.116500 0 2 255
332.879400 -297.686100 981.116100 0 3 255
332.878900 -297.680900 981.118800 0 3 255
332.878500 -297.675700 981.121500 0 3 255
332.877900 -297.670400 981.124800 0 4 255
332.877900 -297.665300 981.124100 0 4 255
332.877800 -297.660200 981.124000 0 4 255
332.877600 -297.655000 981.124400 0 4 255
332.877400 -297.649800 981.125200 0 4 255
332.877200 -297.644700 981.126000 0 4 255
332.877100 -297.639500 981.126100 0 4 255
332.877000 -297.634300 981.126000 0 5 255
332.877100 -297.629300 981.124000 0 5 255
332.876800 -297.624100 981.125500 0 5 255
332.874100 -297.618100 981.145400 0 6 255
332.874000 -297.613000 981.145400 0 6 255
332.873900 -297.607800 981.145100 0 6 255
332.873700 -297.602600 981.145900 0 6 255
332.873600 -297.597400 981.146200 0 6 255
332.873600 -297.592300 981.145200 0 7 255
332.873300 -297.587100 981.146300 0 7 255
332.873300 -297.582000 981.145600 0 7 255
332.873200 -297.576800 981.145300 0 8 255
332.873100 -297.571700 981.145400 0 8 255
332.873000 -297.566500 981.145500 0 8 255
332.872800 -297.561300 981.145900 0 9 255
332.872600 -297.556100 981.146300 0 9 255
332.872500 -297.550900 981.146600 0 9 255
332.872400 -297.545800 981.145900 0 10 255
332.872300 -297.540600 981.146100 0 10 255
332.872300 -297.535500 981.145600 0 10 255
332.872300 -297.530400 981.144700 0 10 255
332.872300 -297.525300 981.143600 0 11 255
332.872200 -297.520100 981.143600 0 12 255
332.871900 -297.514900 981.144700 0 12 255
332.871700 -297.509700 981.145400 0 12 255
332.871600 -297.504500 981.145600 0 13 255
332.871400 -297.499400 981.145800 0 13 255
332.871300 -297.494200 981.145600 0 13 255
332.871300 -297.489100 981.145100 0 14 255
332.871200 -297.484000 981.144600 0 14 255
332.868800 -297.477700 981.163000 0 14 255
332.868500 -297.472500 981.163900 0 15 255
332.868300 -297.467300 981.164800 0 15 255
332.868300 -297.462200 981.163800 0 16 255
332.868100 -297.456900 981.164800 0 16 255
332.867900 -297.451700 981.165400 0 17 255
332.868000 -297.446700 981.163800 0 17 255
332.867700 -297.441400 981.164600 0 18 255
332.867500 -297.436200 981.165900 0 18 255
332.867400 -297.431000 981.165600 0 18 255
332.867600 -297.426000 981.163400 0 19 255
332.867600 -297.420900 981.162500 0 20 255
332.867300 -297.415700 981.163300 0 20 255
332.867200 -297.410500 981.163900 0 20 255
332.867000 -297.405300 981.164300 0 21 255
332.866900 -297.400200 981.164100 0 21 255
332.866800 -297.395000 981.164200 0 22 255
332.866500 -297.389800 981.164900 0 22 255
332.866400 -297.384600 981.165200 0 23 255
332.866300 -297.379500 981.165300 0 23 255
332.866100 -297.374300 981.165500 0 24 255
332.863700 -297.367700 981.183500 0 25 255
332.863600 -297.362500 981.183600 0 25 255
332.863500 -297.357400 981.183500 0 25 255
332.863400 -297.352300 981.182800 0 26 255
332.863300 -297.347100 981.183300 0 26 255
332.863100 -297.341900 981.183200 0 27 255
332.863300 -297.336900 981.181400 0 28 255
332.863200 -297.331800 981.181200 0 28 255
332.863100 -297.326600 981.180800 0 29 255
332.863000 -297.321400 981.180800 0 30 255
332.862900 -297.316300 981.181000 0 30 255
332.862800 -297.311100 981.180800 0 31 255
332.862700 -297.306000 981.180300 0 32 255
332.862700 -297.300900 981.179700 0 32 255
332.862700 -297.295900 981.178500 0 32 255
332.862700 -297.290700 981.177900 0 33 255
332.862500 -297.285600 981.178000 0 34 255
332.862400 -297.280400 981.178200 0 34 255
332.862200 -297.275200 981.179100 0 35 255
332.862000 -297.270000 981.179700 0 36 255
332.861800 -297.264800 981.179900 0 36 255
332.861800 -297.259700 981.179600 0 37 255
332.861800 -297.254700 981.178000 0 37 255
332.861800 -297.249600 981.177700 0 38 255
332.861700 -297.244400 981.177700 0 39 255
332.859100 -297.237500 981.196300 0 40 255
332.859000 -297.232400 981.196100 0 40 255
332.859000 -297.227200 981.195800 0 41 255
332.858900 -297.222100 981.195300 0 42 255
332.858900 -297.217000 981.194500 0 43 255
332.858900 -297.212000 981.193500 0 43 255
332.858800 -297.206800 981.193800 0 44 255
332.858500 -297.201600 981.194800 0 44 255
332.858300 -297.196400 981.195500 0 45 255
332.858300 -297.191300 981.195000 0 46 255
332.858200 -297.186200 981.194500 0 47 255
332.858100 -297.181000 981.194800 0 48 255
332.857900 -297.175800 981.195100 0 48 255
332.858000 -297.170800 981.193600 0 49 255
332.858000 -297.165800 981.192400 0 50 255
332.857800 -297.160600 981.193200 0 51 255
332.857600 -297.155400 981.193700 0 51 255
332.855100 -297.148200 981.212400 0 52 255
332.855100 -297.143100 981.211800 0 53 255
332.855100 -297.138100 981.210300 0 54 255
332.855100 -297.133100 981.209500 0 55 255
332.854900 -297.127800 981.210500 0 56 255
332.854900 -297.122700 981.209800 0 56 255
332.854800 -297.117600 981.209400 0 57 255
332.854800 -297.112600 981.208700 0 58 255
332.854700 -297.107500 981.208400 0 59 255
332.854700 -297.102400 981.207800 0 60 255
332.854600 -297.097400 981.207200 0 60 255
332.854600 -297.092300 981.206400 0 61 255
332.854200 -297.086900 981.208500 0 62 255
332.854200 -297.081900 981.207500 0 63 255
332.854200 -297.076800 981.207000 0 64 255
332.854000 -297.071700 981.207500 0 64 255
332.853900 -297.066500 981.207700 0 65 255
332.851400 -297.059100 981.226000 0 67 255
332.851400 -297.054200 981.224700 0 67 255
332.851500 -297.049200 981.223200 0 68 255
332.851100 -297.043800 981.225200 0 69 255
332.851100 -297.038800 981.224500 0 70 255
332.851000 -297.033700 981.224300 0 71 255
332.850900 -297.028500 981.224300 0 72 255
332.850800 -297.023400 981.224500 0 73 255
332.850600 -297.018200 981.224700 0 74 255
332.850500 -297.013100 981.225000 0 75 255
332.850400 -297.008000 981.224700 0 75 255
332.850600 -297.003100 981.222700 0 76 255
332.850400 -296.998000 981.222700 0 78 255
332.850400 -296.993000 981.222000 0 78 255
332.850500 -296.988100 981.220600 0 79 255
332.850400 -296.983000 981.220200 0 80 255
332.847900 -296.975400 981.238400 0 82 255
332.847900 -296.970400 981.237700 0 82 255
332.848100 -296.965500 981.235700 0 84 255
332.847800 -296.960300 981.236900 0 84 255
332.847500 -296.955000 981.238100 0 85 255
332.847400 -296.949900 981.238200 0 86 255
332.847500 -296.945000 981.236400 0 87 255
332.847500 -296.940000 981.235400 0 88 255
332.847300 -296.934800 981.236100 0 90 255
332.847200 -296.929700 981.235900 0 91 255
332.847300 -296.924800 981.234500 0 91 255
332.847500 -296.920000 981.232200 0 92 255
332.847300 -296.914900 981.232500 0 94 255
332.847100 -296.909700 981.233200 0 94 255
332.847000 -296.904600 981.233000 0 95 255
332.844600 -296.896900 981.251000 0 97 255
332.844500 -296.891800 981.250700 0 98 255
332.844400 -296.886700 981.250500 0 99 255
332.844300 -296.881600 981.250500 0 100 255
332.844000 -296.876300 981.251700 0 102 255
332.844100 -296.871500 981.250000 0 102 255
332.844100 -296.866500 981.249300 0 103 255
332.844000 -296.861500 981.249100 0 104 255
332.844000 -296.856400 981.248700 0 106 255
332.843900 -296.851400 981.248200 0 106 255
332.844100 -296.846600 981.246000 0 108 255
332.844300 -296.841900 981.243700 0 108 255
332.843700 -296.836300 981.247000 0 110 255
332.843800 -296.831400 981.246000 0 111 255
332.843800 -296.826500 981.245000 0 111 255
332.841200 -296.818500 981.263400 0 114 255
332.841200 -296.813500 981.262600 0 115 255
332.841200 -296.808600 981.261600 0 115 255
332.841200 -296.803600 981.261100 0 117 255
332.841200 -296.798700 981.259900 0 118 255
332.841100 -296.793600 981.259800 0 119 255
332.840800 -296.788300 981.261400 0 120 255
332.840800 -296.783300 981.260900 0 121 255
332.841000 -296.778700 981.258200 0 122 255
332.841000 -296.773700 981.257400 0 124 255
332.840800 -296.768600 981.257900 0 125 255
332.840900 -296.763700 981.256600 0 126 255
332.841100 -296.759100 981.253800 0 127 255
332.840900 -296.753800 981.255200 0 129 255
332.840900 -296.749000 981.254100 0 129 255
332.838400 -296.740800 981.272000 0 131 255
332.838300 -296.735800 981.271900 0 133 255
332.838200 -296.730700 981.271900 0 134 255
332.838200 -296.725800 981.271000 0 135 255
332.838100 -296.720800 981.270600 0 136 255
332.838200 -296.715900 981.269600 0 137 255
332.837800 -296.710600 981.271100 0 138 255
332.837800 -296.705700 981.270300 0 139 255
332.837800 -296.700800 981.269700 0 141 255
332.837800 -296.695900 981.268900 0 142 255
332.837800 -296.691000 981.267800 0 143 255
332.837800 -296.686100 981.267100 0 145 255
332.837900 -296.681300 981.265500 0 146 255
332.838000 -296.676600 981.264000 0 147 255
332.835100 -296.667700 981.285000 0 149 255
332.835200 -296.663000 981.283400 0 150 255
332.835300 -296.658200 981.282100 0 152 255
332.835300 -296.653400 981.280800 0 153 255
332.835400 -296.648500 981.279600 0 154 255
332.835400 -296.643700 981.278600 0 155 255
332.835400 -296.638900 981.277600 0 156 255
332.835500 -296.634100 981.276300 0 158 255
332.835200 -296.628800 981.277800 0 159 255
332.835100 -296.623900 981.277000 0 160 255
332.835100 -296.618900 981.276900 0 161 255
332.835000 -296.614000 981.276200 0 163 255
332.832300 -296.605200 981.295700 0 165 255
332.832400 -296.600400 981.294700 0 166 255
332.832500 -296.595800 981.292700 0 168 255
332.832600 -296.591100 981.291100 0 169 255
332.832800 -296.586500 981.288800 0 170 255
332.832900 -296.581800 981.287400 0 171 255
332.832900 -296.576800 981.286900 0 173 255
332.832800 -296.571900 981.286600 0 174 255
332.832700 -296.567000 981.286000 0 176 255
332.832700 -296.562100 981.285300 0 177 255
332.832600 -296.557200 981.285000 0 178 255
332.832700 -296.552400 981.284000 0 180 255
332.832400 -296.547200 981.285100 0 181 255
332.832500 -296.542500 981.283400 0 183 255
332.830000 -296.533800 981.301900 0 185 255
332.830000 -296.529000 981.300900 0 186 255
332.830000 -296.524200 981.300000 0 187 255
332.830000 -296.519300 981.299300 0 189 255
332.830000 -296.514600 981.297900 0 190 255
332.830100 -296.509900 981.296300 0 192 255
332.830000 -296.504900 981.296900 0 193 255
332.830000 -296.500100 981.295800 0 194 255
332.830100 -296.495500 981.294100 0 195 255
332.830100 -296.490700 981.293000 0 197 255
332.830100 -296.485900 981.292400 0 198 255
332.830100 -296.481000 981.291900 0 200 255
332.827300 -296.471800 981.312100 0 202 255
332.827300 -296.467000 981.311100 0 204 255
332.827300 -296.462200 981.310200 0 205 255
332.827400 -296.457600 981.308500 0 207 255
332.827500 -296.453000 981.306900 0 208 255
332.827600 -296.448400 981.305400 0 209 255
332.827700 -296.443600 981.304300 0 211 255
332.827800 -296.439000 981.302700 0 212 255
332.827800 -296.434300 981.301700 0 213 255
332.827800 -296.429600 981.300500 0 215 255
332.827600 -296.424400 981.301600 0 216 255
332.827600 -296.419700 981.300400 0 218 255
332.827600 -296.415000 981.299400 0 219 255
332.825100 -296.406000 981.317700 0 222 255
332.825100 -296.401200 981.316800 0 224 255
332.825100 -296.396500 981.316100 0 225 255
332.825200 -296.391900 981.314100 0 227 255
332.825300 -296.387400 981.312500 0 228 255
332.824800 -296.381700 981.315600 0 230 255
332.825000 -296.377300 981.313300 0 231 255
332.825200 -296.372900 981.311200 0 232 255
332.825200 -296.368200 981.310100 0 234 255
332.825200 -296.363400 981.309700 0 235 255
332.825200 -296.358700 981.308500 0 237 255
332.825300 -296.354200 981.306800 0 238 255
332.823100 -296.345600 981.322800 0 241 255
332.822700 -296.340200 981.324800 0 243 255
332.822800 -296.335600 981.323400 0 244 255
332.822800 -296.330800 981.322900 0 246 255
332.822600 -296.325800 981.323400 0 247 255
332.822600 -296.321000 981.322600 0 249 255
332.822600 -296.316400 981.321600 0 250 255
332.822700 -296.311800 981.320000 0 252 255
332.822800 -296.307200 981.318800 0 253 255
